x,y,z,intensity,r,g,b
-21.942,-88.676,-0.298,-1373,32,30,35
-21.96,-88.67,-0.279,-1334,35,33,38
-21.943,-88.681,-0.276,-1370,33,31,36
-21.942,-88.676,-0.265,-1342,35,33,38
-21.957,-88.666,-0.258,-1383,36,33,40
-21.906,-88.686,-0.298,-1316,32,32,32
-21.924,-88.682,-0.292,-1335,30,30,32
-21.923,-88.681,-0.281,-1337,31,31,33
-21.907,-88.687,-0.277,-1339,31,31,31
-21.924,-88.683,-0.258,-1350,32,30,33
-21.782,-88.716,-0.373,-1619,61,52,53
-21.857,-88.714,-0.365,-1447,51,47,44
-21.839,-88.719,-0.374,-1542,56,51,48
-21.84,-88.722,-0.351,-1432,49,45,44
-21.823,-88.728,-0.353,-1481,54,50,49
-21.872,-88.698,-0.358,-1383,49,45,44
-21.857,-88.715,-0.354,-1552,46,42,41
-21.821,-88.723,-0.33,-1640,52,48,47
-21.873,-88.702,-0.334,-1355,37,36,34
-21.855,-88.705,-0.331,-1329,43,39,38
-21.854,-88.704,-0.319,-1339,32,30,31
-21.838,-88.712,-0.329,-1391,34,32,33
-21.837,-88.709,-0.317,-1385,34,32,33
-21.82,-88.716,-0.318,-1404,40,36,37
-21.769,-88.738,-0.369,-1494,57,51,51
-21.804,-88.729,-0.369,-1686,58,52,52
-21.803,-88.722,-0.357,-1637,54,50,49
-21.785,-88.729,-0.35,-1657,54,50,49
-21.767,-88.731,-0.358,-1562,57,51,51
-21.805,-88.73,-0.334,-1408,52,48,47
-21.788,-88.742,-0.338,-1437,53,49,48
-21.788,-88.742,-0.314,-1462,41,39,40
-21.768,-88.734,-0.335,-1586,54,50,49
-21.75,-88.735,-0.332,-1584,55,51,50
-21.837,-88.71,-0.294,-1391,34,30,31
-21.872,-88.699,-0.311,-1363,31,29,30
-21.871,-88.698,-0.3,-1339,32,30,31
-21.854,-88.703,-0.296,-1375,33,29,30
-21.854,-88.703,-0.284,-1391,33,29,30
-21.836,-88.707,-0.283,-1365,33,29,30
-21.819,-88.714,-0.295,-1367,34,29,33
-21.82,-88.715,-0.283,-1353,32,27,31
-21.871,-88.698,-0.277,-1373,32,30,31
-21.872,-88.701,-0.265,-1340,32,30,31
-21.854,-88.703,-0.261,-1357,34,29,33
-21.837,-88.711,-0.259,-1378,33,28,32
-21.82,-88.716,-0.26,-1375,34,28,32
-21.768,-88.737,-0.312,-1448,43,41,42
-21.803,-88.724,-0.31,-1417,41,39,40
-21.802,-88.721,-0.299,-1389,34,32,33
-21.784,-88.726,-0.292,-1378,34,32,33
-21.753,-88.748,-0.3,-1457,36,34,35
-21.803,-88.722,-0.276,-1381,30,28,29
-21.784,-88.724,-0.28,-1378,30,28,29
-21.802,-88.721,-0.264,-1371,31,29,32
-21.785,-88.728,-0.257,-1391,31,29,32
-21.767,-88.732,-0.266,-1404,30,28,31
-21.768,-88.736,-0.278,-1401,30,28,29
-21.75,-88.74,-0.278,-1426,30,28,29
-21.987,-88.555,-0.328,-1352,39,34,41
-21.968,-88.555,-0.296,-1195,41,36,43
-21.95,-88.557,-0.274,-1147,36,31,38
-21.714,-88.746,-0.353,-1607,55,51,50
-21.714,-88.746,-0.5,-1647,60,52,50
-21.696,-88.749,-0.467,-1647,60,50,49
-21.734,-88.749,-0.467,-1602,58,50,48
-21.715,-88.748,-0.442,-1596,62,54,52
-21.714,-88.747,-0.42,-1527,63,53,52
-21.749,-88.736,-0.429,-1640,61,51,50
-21.733,-88.743,-0.422,-1527,61,51,50
-21.715,-88.748,-0.409,-1543,62,54,52
-21.695,-88.747,-0.41,-1601,62,54,52
-21.749,-88.733,-0.386,-1566,59,51,49
-21.75,-88.738,-0.375,-1534,57,51,51
-21.731,-88.737,-0.389,-1614,60,52,50
-21.749,-88.733,-0.354,-1619,55,51,50
-21.734,-88.746,-0.356,-1589,55,51,50
-21.734,-88.746,-0.334,-1545,54,50,49
-21.715,-88.748,-0.319,-1655,52,50,51
-21.715,-88.749,-0.262,-1511,28,26,29
-21.734,-88.747,-0.278,-1565,30,28,29
-21.749,-88.736,-0.257,-1380,29,27,30
-21.733,-88.745,-0.257,-1416,29,27,30
-21.644,-88.767,-0.116,-1408,30,28,29
-21.645,-88.771,-0.244,-1568,25,25,27
-21.697,-88.753,-0.241,-1417,27,25,28
-21.697,-88.753,-0.23,-1391,27,25,28
-21.696,-88.75,-0.207,-1401,30,28,29
-21.644,-88.766,-0.221,-1416,27,25,26
-21.63,-88.788,-0.242,-1596,25,25,27
-21.629,-88.785,-0.219,-1427,29,25,26
-21.681,-88.763,-0.248,-1435,28,26,29
-21.663,-88.768,-0.242,-1434,26,26,28
-21.68,-88.758,-0.225,-1381,28,26,29
-21.661,-88.76,-0.22,-1408,30,26,27
-21.68,-88.759,-0.203,-1404,29,27,28
-21.662,-88.764,-0.208,-1414,30,26,27
-21.68,-88.76,-0.191,-1422,30,28,29
-21.645,-88.77,-0.21,-1414,27,25,26
-21.628,-88.78,-0.208,-1398,30,26,27
-21.697,-88.752,-0.185,-1404,30,28,29
-21.697,-88.752,-0.173,-1381,30,28,29
-21.716,-88.752,-0.149,-1376,32,30,33
-21.697,-88.754,-0.15,-1378,30,28,29
-21.697,-88.753,-0.128,-1430,31,29,32
-21.644,-88.765,-0.186,-1401,30,28,29
-21.662,-88.765,-0.185,-1417,30,28,29
-21.663,-88.77,-0.174,-1406,30,28,29
-21.679,-88.756,-0.169,-1417,30,28,29
-21.645,-88.769,-0.175,-1376,30,28,29
-21.627,-88.775,-0.185,-1370,29,27,28
-21.626,-88.773,-0.174,-1386,30,28,29
-21.679,-88.758,-0.147,-1396,30,28,29
-21.662,-88.765,-0.152,-1381,30,28,29
-21.663,-88.769,-0.128,-1391,30,28,29
-21.68,-88.758,-0.135,-1411,31,29,32
-21.644,-88.766,-0.151,-1406,30,28,29
-21.627,-88.775,-0.151,-1383,30,28,29
-21.645,-88.773,-0.129,-1411,30,28,29
-21.627,-88.776,-0.139,-1373,30,28,29
-21.56,-88.808,-0.237,-1404,30,26,27
-21.525,-88.822,-0.247,-1534,29,25,26
-21.543,-88.815,-0.241,-1494,29,25,26
-21.544,-88.82,-0.219,-1661,29,25,26
-21.508,-88.827,-0.24,-1625,29,27,30
-21.527,-88.827,-0.224,-1455,29,25,26
-21.507,-88.821,-0.205,-1552,31,26,30
-21.61,-88.779,-0.224,-1458,27,25,28
-21.613,-88.793,-0.247,-1439,27,27,29
-21.597,-88.805,-0.242,-1447,26,24,25
-21.578,-88.804,-0.246,-1483,29,25,26
-21.592,-88.787,-0.23,-1663,28,24,25
-21.576,-88.797,-0.223,-1620,29,25,26
-21.592,-88.785,-0.207,-1393,30,26,25
-21.574,-88.791,-0.211,-1440,29,25,24
-21.575,-88.794,-0.188,-1399,28,26,27
-21.61,-88.781,-0.201,-1396,30,26,27
-21.61,-88.778,-0.19,-1375,29,27,28
-21.561,-88.812,-0.226,-1483,30,26,27
-21.54,-88.802,-0.209,-1516,29,25,26
-21.557,-88.798,-0.203,-1501,29,25,26
-21.54,-88.802,-0.188,-1399,28,26,27
-21.557,-88.795,-0.191,-1386,27,25,26
-21.522,-88.808,-0.201,-1468,30,26,27
-21.523,-88.812,-0.19,-1424,28,26,27
-21.506,-88.816,-0.183,-1483,29,27,28
-21.505,-88.816,-0.172,-1412,29,27,28
-21.506,-88.816,-0.137,-1440,28,27,25
-21.61,-88.78,-0.167,-1391,30,28,29
-21.592,-88.787,-0.184,-1375,28,26,27
-21.592,-88.784,-0.172,-1401,28,26,27
-21.575,-88.791,-0.165,-1344,29,27,28
-21.611,-88.784,-0.155,-1386,30,28,29
-21.574,-88.79,-0.153,-1357,29,27,28
-21.593,-88.789,-0.136,-1406,29,27,30
-21.574,-88.789,-0.13,-1386,30,28,31
-21.609,-88.776,-0.133,-1386,29,27,28
-21.591,-88.78,-0.149,-1398,29,27,28
-21.522,-88.807,-0.168,-1391,28,26,27
-21.557,-88.796,-0.157,-1383,29,27,28
-21.557,-88.798,-0.169,-1376,28,26,27
-21.54,-88.801,-0.166,-1422,29,27,28
-21.521,-88.805,-0.156,-1417,29,27,28
-21.541,-88.807,-0.155,-1426,29,27,28
-21.541,-88.805,-0.135,-1409,30,28,29
-21.557,-88.796,-0.133,-1381,30,28,29
-21.504,-88.812,-0.148,-1399,28,26,27
-21.522,-88.807,-0.134,-1358,29,27,28
-21.627,-88.775,-0.115,-1398,30,28,29
-21.697,-88.754,-0.116,-1457,32,30,33
-21.645,-88.772,-0.094,-1408,35,33,36
-21.68,-88.762,-0.114,-1460,32,30,33
-21.661,-88.76,-0.117,-1452,31,29,30
-21.664,-88.772,-0.094,-1422,32,27,31
-21.629,-88.783,-0.081,-1498,38,33,37
-21.627,-88.776,-0.092,-1432,29,27,30
-21.523,-88.811,-0.111,-1378,30,28,29
-21.592,-88.784,-0.113,-1381,30,28,31
-21.611,-88.782,-0.109,-1408,32,30,31
-21.611,-88.784,-0.098,-1471,29,27,30
-21.573,-88.786,-0.118,-1375,30,28,31
-21.574,-88.789,-0.095,-1381,30,28,31
-21.592,-88.785,-0.091,-1376,30,28,31
-21.592,-88.787,-0.079,-1435,32,27,31
-21.575,-88.794,-0.083,-1403,33,28,34
-21.505,-88.812,-0.114,-1419,28,27,25
-21.556,-88.794,-0.111,-1404,29,27,28
-21.538,-88.796,-0.113,-1421,30,28,29
-21.556,-88.793,-0.099,-1344,29,27,28
-21.523,-88.81,-0.1,-1409,30,28,29
-21.541,-88.805,-0.092,-1408,29,27,28
-21.541,-88.806,-0.081,-1385,32,28,29
-21.558,-88.801,-0.076,-1422,32,28,29
-21.558,-88.8,-0.064,-1447,33,28,32
-21.504,-88.809,-0.091,-1448,29,28,26
-21.504,-88.809,-0.079,-1396,30,26,23
-21.521,-88.804,-0.077,-1378,31,27,26
-21.526,-88.824,-0.055,-1552,32,28,27
-21.543,-88.816,-0.061,-1480,32,28,27
-21.505,-88.813,-0.057,-1481,31,27,24
-21.773,-88.525,-0.12,-1381,52,42,50
-21.924,-88.681,-0.247,-1353,33,31,34
-21.889,-88.692,-0.237,-1358,33,31,32
-21.907,-88.689,-0.244,-1367,33,31,32
-21.907,-88.688,-0.223,-1365,35,33,36
-21.889,-88.693,-0.226,-1340,36,31,35
-21.889,-88.693,-0.203,-1365,42,32,40
-21.941,-88.674,-0.243,-1373,37,32,38
-21.802,-88.718,-0.229,-1337,33,28,32
-21.838,-88.713,-0.248,-1367,33,28,32
-21.872,-88.699,-0.242,-1370,34,30,31
-21.854,-88.704,-0.238,-1396,34,29,33
-21.855,-88.705,-0.227,-1330,34,29,33
-21.871,-88.695,-0.219,-1393,35,29,33
-21.82,-88.717,-0.248,-1376,34,27,34
-21.838,-88.712,-0.225,-1368,34,28,32
-21.82,-88.716,-0.225,-1383,34,27,34
-21.872,-88.699,-0.207,-1368,35,29,33
-21.855,-88.705,-0.204,-1403,35,29,33
-21.854,-88.701,-0.192,-1389,38,33,37
-21.837,-88.708,-0.203,-1388,36,31,35
-21.838,-88.713,-0.191,-1386,32,32,34
-21.82,-88.715,-0.201,-1380,36,31,35
-21.82,-88.715,-0.19,-1368,31,32,34
-21.767,-88.731,-0.242,-1375,29,27,30
-21.802,-88.72,-0.241,-1373,30,28,31
-21.784,-88.727,-0.245,-1371,30,28,31
-21.784,-88.725,-0.222,-1360,31,29,32
-21.767,-88.731,-0.22,-1335,31,29,32
-21.751,-88.737,-0.224,-1363,29,27,30
-21.784,-88.724,-0.21,-1367,31,29,32
-21.767,-88.73,-0.208,-1398,31,29,32
-21.75,-88.736,-0.203,-1363,31,29,32
-21.75,-88.736,-0.192,-1347,31,29,32
-21.801,-88.717,-0.206,-1365,32,30,33
-21.82,-88.718,-0.166,-1393,28,29,31
-21.767,-88.732,-0.185,-1368,32,30,33
-21.803,-88.722,-0.182,-1411,33,33,35
-21.783,-88.722,-0.187,-1393,33,31,34
-21.785,-88.728,-0.176,-1373,33,31,34
-21.803,-88.723,-0.171,-1426,33,33,35
-21.767,-88.73,-0.174,-1367,31,29,32
-21.75,-88.735,-0.171,-1391,32,30,33
-21.784,-88.727,-0.152,-1411,34,32,35
-21.766,-88.729,-0.15,-1401,31,29,32
-21.751,-88.737,-0.149,-1381,32,30,33
-21.751,-88.74,-0.128,-1445,35,30,34
-21.898,-88.501,-0.22,-1360,38,33,40
-21.9,-88.585,-0.224,-1326,36,34,37
-21.916,-88.504,-0.246,-1358,41,36,43
-21.881,-88.508,-0.202,-1375,42,35,43
-21.879,-88.502,-0.19,-1412,59,43,54
-21.864,-88.512,-0.19,-1358,51,33,45
-21.867,-88.525,-0.201,-1337,43,33,41
-21.85,-88.535,-0.191,-1335,47,31,42
-21.843,-88.58,-0.184,-1126,40,30,38
-21.812,-88.607,-0.168,-1342,28,28,30
-21.785,-88.576,-0.154,-1229,39,37,42
-21.77,-88.591,-0.147,-1158,38,33,37
-21.831,-88.53,-0.172,-1344,37,27,35
-21.813,-88.536,-0.169,-1353,39,34,38
-21.845,-88.516,-0.168,-1370,50,32,44
-21.827,-88.515,-0.149,-1381,45,35,43
-21.824,-88.503,-0.138,-1355,91,84,92
-21.81,-88.523,-0.146,-1408,53,46,53
-21.794,-88.532,-0.146,-1360,32,22,30
-21.775,-88.535,-0.131,-1358,54,43,51
-21.759,-88.545,-0.136,-1350,42,35,42
-21.805,-88.505,-0.134,-1406,68,58,67
-21.792,-88.528,-0.133,-1401,73,61,71
-21.77,-88.514,-0.097,-1381,88,85,92
-21.754,-88.523,-0.101,-1389,60,55,61
-21.756,-88.533,-0.113,-1376,45,38,45
-21.788,-88.511,-0.111,-1383,76,66,75
-21.805,-88.501,-0.099,-1360,90,83,91
-21.787,-88.504,-0.1,-1376,97,92,99
-21.805,-88.502,-0.077,-1347,110,104,114
-21.788,-88.508,-0.077,-1340,120,114,124
-21.77,-88.513,-0.073,-1340,95,90,97
-21.753,-88.519,-0.078,-1344,92,82,90
-21.77,-88.514,-0.061,-1335,102,92,103
-21.787,-88.504,-0.054,-1334,168,158,169
-21.805,-88.501,-0.042,-1357,183,177,187
-21.787,-88.504,-0.043,-1355,168,158,169
-21.753,-88.519,-0.055,-1352,123,110,119
-21.752,-88.517,-0.044,-1373,123,110,119
-21.769,-88.509,-0.038,-1355,157,145,157
-21.786,-88.502,-0.021,-1350,175,172,183
-21.805,-88.502,-0.008,-1337,185,182,191
-21.787,-88.506,-0.009,-1353,182,179,190
-21.769,-88.508,-0.026,-1349,175,169,179
-21.752,-88.515,-0.021,-1324,172,160,170
-21.752,-88.516,-0.009,-1367,184,172,182
-21.769,-88.51,-0.003,-1355,181,175,185
-21.687,-88.556,-0.079,-1394,67,57,65
-21.715,-88.748,-0.24,-1401,27,25,28
-21.714,-88.746,-0.228,-1393,28,26,29
-21.749,-88.735,-0.246,-1355,28,26,29
-21.733,-88.744,-0.245,-1417,28,26,29
-21.732,-88.741,-0.223,-1378,29,27,30
-21.731,-88.735,-0.201,-1462,31,29,32
-21.732,-88.739,-0.19,-1386,31,29,32
-21.715,-88.748,-0.205,-1386,31,29,30
-21.715,-88.748,-0.183,-1386,31,29,32
-21.733,-88.744,-0.168,-1396,32,30,33
-21.714,-88.745,-0.171,-1401,31,29,32
-21.733,-88.742,-0.146,-1414,33,31,34
-21.733,-88.743,-0.135,-1417,35,30,34
-21.714,-88.747,-0.137,-1388,31,29,32
-21.742,-88.555,-0.128,-1370,38,33,39
-21.729,-88.575,-0.128,-1427,34,29,33
-21.714,-88.747,-0.115,-1444,31,29,32
-21.574,-88.63,-0.074,-1486,35,30,34
-21.706,-88.554,-0.095,-1426,44,37,44
-21.71,-88.573,-0.115,-1365,36,31,35
-21.697,-88.597,-0.112,-1378,36,31,35
-21.69,-88.57,-0.101,-1373,37,30,37
-21.653,-88.573,-0.082,-1389,38,32,36
-21.671,-88.571,-0.091,-1378,40,35,39
-21.67,-88.566,-0.081,-1394,49,42,49
-21.655,-88.582,-0.093,-1375,36,31,35
-21.639,-88.592,-0.091,-1388,34,29,33
-21.636,-88.581,-0.08,-1386,41,35,39
-21.741,-88.548,-0.117,-1357,41,36,42
-21.724,-88.555,-0.116,-1358,36,31,35
-21.737,-88.533,-0.093,-1375,71,61,69
-21.721,-88.544,-0.093,-1406,49,42,49
-21.719,-88.534,-0.081,-1376,74,64,72
-21.702,-88.54,-0.073,-1383,64,54,62
-21.701,-88.533,-0.063,-1362,81,70,78
-21.735,-88.527,-0.081,-1371,83,72,80
-21.633,-88.567,-0.059,-1404,44,38,42
-21.718,-88.529,-0.058,-1373,88,77,85
-21.735,-88.524,-0.059,-1344,94,83,91
-21.734,-88.523,-0.047,-1344,121,108,117
-21.718,-88.531,-0.047,-1370,99,86,95
-21.7,-88.531,-0.041,-1352,101,88,97
-21.7,-88.532,-0.02,-1358,121,105,115
-21.701,-88.535,-0.009,-1350,158,145,155
-21.735,-88.524,-0.024,-1342,173,157,167
-21.734,-88.522,-0.001,-1352,190,180,189
-21.717,-88.529,-0.024,-1360,161,145,155
-21.717,-88.528,-0.001,-1373,189,181,192
-21.649,-88.557,-0.058,-1391,52,46,50
-21.683,-88.539,-0.057,-1416,73,63,71
-21.667,-88.551,-0.057,-1403,56,46,54
-21.683,-88.54,-0.046,-1368,83,72,80
-21.664,-88.54,-0.047,-1371,73,62,70
-21.647,-88.551,-0.037,-1321,75,66,71
-21.63,-88.555,-0.036,-1380,68,59,64
-21.682,-88.537,-0.024,-1363,140,124,134
-21.665,-88.545,-0.023,-1371,104,91,100
-21.682,-88.534,-0.002,-1357,130,117,127
-21.665,-88.544,-0.001,-1368,167,151,161
-21.647,-88.548,-0.026,-1373,84,73,81
-21.629,-88.552,-0.025,-1389,82,71,79
-21.647,-88.549,-0.003,-1345,104,91,100
-21.63,-88.554,-0.003,-1370,95,82,89
-21.619,-88.59,-0.082,-1385,41,35,39
-21.568,-88.607,-0.064,-1353,35,30,34
-21.604,-88.604,-0.082,-1475,30,25,29
-21.583,-88.593,-0.047,-1399,45,39,43
-21.584,-88.599,-0.057,-1358,31,26,30
-21.617,-88.581,-0.06,-1396,33,27,31
-21.601,-88.589,-0.059,-1399,41,36,40
-21.613,-88.565,-0.037,-1380,56,47,52
-21.597,-88.575,-0.035,-1383,59,53,57
-21.565,-88.594,-0.041,-1386,40,34,38
-21.595,-88.566,-0.024,-1375,62,53,58
-21.596,-88.57,-0.001,-1355,103,80,88
-21.578,-88.574,-0.024,-1380,64,55,60
-21.53,-88.607,-0.037,-1408,36,31,37
-21.549,-88.608,-0.055,-1388,33,28,34
-21.533,-88.621,-0.06,-1437,33,28,34
-21.549,-88.609,-0.044,-1381,33,28,34
-21.514,-88.622,-0.041,-1368,34,29,33
-21.528,-88.599,-0.025,-1393,45,38,45
-21.509,-88.599,-0.018,-1393,40,34,38
-21.508,-88.595,-0.006,-1381,44,40,41
-21.561,-88.576,-0.018,-1421,55,46,51
-21.544,-88.587,-0.021,-1373,46,39,46
-21.544,-88.586,-0.008,-1367,54,47,55
-21.56,-88.575,-0.007,-1365,64,53,61
-21.526,-88.593,-0.002,-1357,56,53,62
-21.612,-88.558,-0.025,-1360,71,62,67
-21.612,-88.561,-0.002,-1339,146,123,131
-21.436,-88.839,-0.372,-1426,55,53,54
-21.417,-88.84,-0.368,-1426,50,48,49
-21.28,-88.898,-0.496,-1488,72,61,57
-21.279,-88.894,-0.484,-1421,72,61,57
-21.295,-88.882,-0.481,-1424,70,59,55
-21.262,-88.902,-0.495,-1432,67,57,55
-21.261,-88.897,-0.484,-1399,67,57,55
-21.295,-88.881,-0.458,-1507,68,57,53
-21.294,-88.875,-0.447,-1437,68,57,55
-21.279,-88.892,-0.461,-1504,71,60,56
-21.26,-88.895,-0.461,-1453,69,59,57
-21.279,-88.893,-0.439,-1463,65,57,54
-21.26,-88.893,-0.439,-1448,67,57,56
-21.279,-88.893,-0.428,-1470,64,56,54
-21.294,-88.876,-0.424,-1530,63,55,53
-21.261,-88.896,-0.427,-1434,64,56,54
-21.294,-88.877,-0.39,-1488,59,54,51
-21.277,-88.884,-0.394,-1501,60,55,52
-21.28,-88.897,-0.405,-1434,60,55,52
-21.26,-88.895,-0.405,-1426,62,54,52
-21.26,-88.892,-0.393,-1394,61,53,51
-21.436,-88.839,-0.5,-1622,60,55,51
-21.453,-88.831,-0.496,-1540,63,53,51
-21.487,-88.821,-0.495,-1427,64,54,52
-21.472,-88.833,-0.493,-1442,65,54,52
-21.471,-88.829,-0.482,-1465,65,54,52
-21.485,-88.814,-0.483,-1483,64,54,52
-21.454,-88.833,-0.485,-1552,63,53,51
-21.486,-88.818,-0.461,-1471,62,52,50
-21.471,-88.828,-0.458,-1481,64,53,51
-21.486,-88.817,-0.438,-1537,64,50,47
-21.471,-88.827,-0.447,-1445,63,52,48
-21.453,-88.832,-0.461,-1463,62,52,50
-21.456,-88.841,-0.45,-1416,62,52,50
-21.436,-88.84,-0.475,-1507,60,55,52
-21.42,-88.853,-0.497,-1547,50,48,49
-21.42,-88.85,-0.485,-1537,51,49,50
-21.4,-88.85,-0.495,-1617,45,43,44
-21.386,-88.867,-0.486,-1511,51,42,43
-21.384,-88.859,-0.498,-1517,48,39,40
-21.4,-88.849,-0.483,-1530,45,43,44
-21.419,-88.846,-0.462,-1522,51,49,50
-21.418,-88.844,-0.45,-1525,51,49,50
-21.402,-88.856,-0.459,-1524,45,43,44
-21.384,-88.857,-0.462,-1527,49,40,41
-21.4,-88.848,-0.448,-1573,47,43,44
-21.383,-88.856,-0.439,-1493,48,40,38
-21.436,-88.841,-0.464,-1488,60,55,52
-21.437,-88.843,-0.441,-1450,64,56,54
-21.452,-88.835,-0.426,-1532,65,55,53
-21.487,-88.821,-0.427,-1512,64,53,47
-21.472,-88.832,-0.424,-1516,65,54,50
-21.471,-88.828,-0.413,-1465,64,55,50
-21.489,-88.827,-0.405,-1517,62,53,48
-21.489,-88.83,-0.394,-1465,60,53,47
-21.473,-88.834,-0.39,-1529,62,54,51
-21.452,-88.834,-0.404,-1488,63,55,52
-21.453,-88.835,-0.392,-1465,61,56,53
-21.435,-88.838,-0.429,-1447,64,56,54
-21.418,-88.844,-0.426,-1506,51,47,46
-21.401,-88.852,-0.424,-1480,46,40,40
-21.383,-88.853,-0.428,-1462,48,40,38
-21.4,-88.849,-0.413,-1450,44,40,39
-21.419,-88.845,-0.391,-1435,56,52,53
-21.382,-88.851,-0.404,-1519,49,41,39
-21.384,-88.858,-0.393,-1406,50,41,42
-21.4,-88.849,-0.39,-1427,45,41,42
-21.436,-88.839,-0.406,-1406,60,55,52
-21.418,-88.843,-0.403,-1409,57,51,51
-21.435,-88.838,-0.383,-1394,60,56,55
-21.31,-88.864,-0.482,-1511,66,55,51
-21.327,-88.859,-0.48,-1522,58,47,45
-21.346,-88.851,-0.494,-1534,60,49,47
-21.366,-88.864,-0.499,-1416,61,50,48
-21.365,-88.864,-0.476,-1401,61,50,48
-21.344,-88.845,-0.482,-1535,60,49,47
-21.366,-88.866,-0.464,-1388,59,48,46
-21.366,-88.864,-0.441,-1434,59,49,48
-21.325,-88.849,-0.457,-1522,57,46,44
-21.327,-88.857,-0.446,-1481,57,47,45
-21.344,-88.844,-0.447,-1494,60,49,47
-21.344,-88.842,-0.459,-1534,59,48,46
-21.309,-88.857,-0.46,-1516,63,52,48
-21.309,-88.861,-0.438,-1521,62,54,52
-21.327,-88.857,-0.423,-1525,55,47,45
-21.344,-88.844,-0.424,-1496,56,48,46
-21.365,-88.861,-0.429,-1458,59,49,48
-21.345,-88.848,-0.412,-1465,55,45,44
-21.328,-88.862,-0.411,-1532,53,45,43
-21.364,-88.858,-0.406,-1514,57,47,46
-21.364,-88.859,-0.394,-1403,56,46,45
-21.345,-88.85,-0.389,-1440,54,44,43
-21.326,-88.852,-0.388,-1493,52,44,42
-21.311,-88.866,-0.427,-1455,61,53,51
-21.294,-88.874,-0.413,-1560,60,55,52
-21.309,-88.859,-0.405,-1524,58,53,50
-21.308,-88.855,-0.384,-1496,57,52,49
-21.277,-88.885,-0.371,-1496,61,56,53
-21.26,-88.894,-0.371,-1391,58,53,50
-21.295,-88.878,-0.367,-1499,58,53,50
-21.296,-88.883,-0.356,-1442,56,50,50
-21.278,-88.89,-0.348,-1424,58,54,53
-21.26,-88.894,-0.348,-1352,56,52,51
-21.294,-88.875,-0.334,-1450,55,49,49
-21.278,-88.886,-0.337,-1473,56,52,51
-21.259,-88.889,-0.336,-1362,53,52,50
-21.26,-88.892,-0.314,-1339,48,47,45
-21.278,-88.889,-0.314,-1489,49,48,46
-21.278,-88.886,-0.303,-1444,40,40,40
-21.295,-88.879,-0.311,-1371,50,46,45
-21.294,-88.877,-0.3,-1389,41,39,40
-21.26,-88.892,-0.303,-1311,39,39,39
-21.295,-88.878,-0.277,-1368,30,30,30
-21.295,-88.877,-0.266,-1398,30,30,30
-21.278,-88.886,-0.28,-1489,33,33,33
-21.259,-88.89,-0.28,-1358,32,32,32
-21.26,-88.891,-0.257,-1362,28,28,28
-21.278,-88.886,-0.257,-1416,28,28,28
-21.436,-88.84,-0.348,-1426,45,45,45
-21.455,-88.84,-0.369,-1426,59,55,54
-21.487,-88.822,-0.371,-1517,55,52,47
-21.469,-88.821,-0.367,-1506,58,54,51
-21.471,-88.829,-0.355,-1473,48,47,45
-21.488,-88.824,-0.349,-1437,45,44,40
-21.452,-88.831,-0.358,-1442,48,46,47
-21.489,-88.827,-0.337,-1417,36,35,33
-21.472,-88.833,-0.332,-1468,38,37,35
-21.486,-88.818,-0.315,-1408,29,29,29
-21.454,-88.838,-0.335,-1416,39,37,38
-21.418,-88.841,-0.356,-1426,42,42,42
-21.401,-88.851,-0.367,-1391,38,36,37
-21.384,-88.859,-0.369,-1429,50,41,42
-21.401,-88.852,-0.355,-1399,35,33,34
-21.383,-88.855,-0.357,-1473,49,40,41
-21.419,-88.846,-0.334,-1430,36,36,36
-21.401,-88.853,-0.331,-1385,31,29,32
-21.383,-88.856,-0.334,-1432,47,38,39
-21.399,-88.845,-0.319,-1427,31,29,32
-21.434,-88.834,-0.337,-1463,37,37,37
-21.434,-88.833,-0.314,-1485,29,30,32
-21.418,-88.844,-0.321,-1412,29,30,32
-21.453,-88.832,-0.312,-1460,29,29,29
-21.47,-88.824,-0.299,-1447,27,27,29
-21.472,-88.831,-0.31,-1412,29,29,29
-21.487,-88.822,-0.293,-1457,27,27,29
-21.487,-88.822,-0.282,-1403,27,27,29
-21.452,-88.83,-0.3,-1412,28,28,30
-21.472,-88.832,-0.275,-1442,29,27,30
-21.487,-88.82,-0.259,-1391,29,27,30
-21.47,-88.825,-0.264,-1381,29,27,30
-21.454,-88.837,-0.277,-1435,28,28,30
-21.453,-88.831,-0.266,-1427,29,27,28
-21.437,-88.842,-0.302,-1419,29,29,31
-21.418,-88.845,-0.299,-1398,29,29,31
-21.383,-88.852,-0.312,-1416,40,34,36
-21.385,-88.861,-0.3,-1424,36,30,32
-21.4,-88.848,-0.296,-1389,31,29,32
-21.4,-88.846,-0.285,-1404,30,28,31
-21.419,-88.845,-0.275,-1430,29,27,28
-21.383,-88.853,-0.277,-1350,31,27,28
-21.4,-88.846,-0.262,-1396,29,27,28
-21.383,-88.852,-0.265,-1398,31,27,28
-21.436,-88.841,-0.28,-1429,28,28,30
-21.436,-88.84,-0.257,-1403,29,27,28
-21.418,-88.842,-0.264,-1376,29,27,28
-21.31,-88.862,-0.373,-1507,56,51,48
-21.326,-88.853,-0.365,-1471,53,45,43
-21.364,-88.857,-0.371,-1355,55,45,44
-21.345,-88.85,-0.365,-1450,54,44,43
-21.365,-88.861,-0.347,-1332,54,44,45
-21.345,-88.849,-0.354,-1468,54,44,45
-21.326,-88.853,-0.354,-1498,53,44,45
-21.365,-88.86,-0.335,-1327,54,44,45
-21.344,-88.844,-0.319,-1468,51,42,43
-21.326,-88.852,-0.332,-1447,48,42,42
-21.326,-88.855,-0.32,-1430,48,42,42
-21.343,-88.839,-0.331,-1476,51,42,43
-21.309,-88.86,-0.351,-1475,55,46,47
-21.309,-88.86,-0.33,-1460,51,45,45
-21.308,-88.855,-0.319,-1463,51,45,45
-21.326,-88.852,-0.297,-1411,44,40,41
-21.364,-88.856,-0.312,-1352,51,42,43
-21.365,-88.863,-0.301,-1280,46,40,42
-21.344,-88.846,-0.296,-1499,46,40,42
-21.346,-88.852,-0.284,-1514,43,39,40
-21.364,-88.858,-0.277,-1347,39,35,36
-21.363,-88.853,-0.265,-1324,39,35,36
-21.327,-88.858,-0.274,-1414,38,36,37
-21.325,-88.849,-0.263,-1383,34,34,34
-21.343,-88.841,-0.261,-1475,36,34,35
-21.309,-88.859,-0.298,-1463,44,40,41
-21.308,-88.855,-0.277,-1511,33,33,33
-21.309,-88.857,-0.266,-1501,33,33,33
-21.154,-88.921,-0.37,-1444,46,44,45
-21.155,-88.924,-0.498,-1507,55,49,49
-21.225,-88.901,-0.495,-1389,67,57,55
-21.226,-88.908,-0.484,-1432,67,57,55
-21.208,-88.912,-0.479,-1442,62,54,52
-21.192,-88.919,-0.482,-1388,60,52,50
-21.244,-88.904,-0.479,-1432,68,58,56
-21.226,-88.907,-0.462,-1401,67,57,55
-21.209,-88.914,-0.467,-1424,62,54,52
-21.191,-88.915,-0.458,-1409,61,53,51
-21.207,-88.908,-0.445,-1465,63,53,52
-21.191,-88.915,-0.447,-1398,61,53,51
-21.244,-88.906,-0.467,-1435,68,58,56
-21.244,-88.904,-0.444,-1437,68,58,56
-21.225,-88.903,-0.439,-1409,66,56,55
-21.156,-88.929,-0.486,-1463,53,47,47
-21.172,-88.919,-0.497,-1488,59,53,53
-21.173,-88.925,-0.486,-1427,59,53,53
-21.173,-88.924,-0.463,-1421,58,52,52
-21.157,-88.934,-0.463,-1476,52,46,46
-21.173,-88.925,-0.44,-1460,58,49,50
-21.156,-88.928,-0.44,-1450,53,44,45
-21.142,-88.945,-0.423,-1696,51,42,43
-21.14,-88.939,-0.412,-1660,50,44,46
-21.225,-88.904,-0.428,-1483,64,54,53
-21.208,-88.91,-0.422,-1481,63,53,52
-21.191,-88.917,-0.424,-1416,62,52,51
-21.208,-88.908,-0.411,-1468,63,53,52
-21.191,-88.917,-0.412,-1421,63,53,52
-21.243,-88.9,-0.421,-1367,65,55,54
-21.242,-88.898,-0.409,-1370,62,54,52
-21.208,-88.907,-0.388,-1489,61,53,51
-21.192,-88.921,-0.389,-1403,61,52,53
-21.226,-88.906,-0.405,-1426,62,54,52
-21.226,-88.905,-0.394,-1426,61,53,51
-21.243,-88.9,-0.386,-1406,58,53,50
-21.156,-88.926,-0.428,-1429,54,45,46
-21.173,-88.923,-0.429,-1406,58,49,50
-21.173,-88.924,-0.405,-1435,56,47,48
-21.174,-88.926,-0.394,-1416,54,48,48
-21.157,-88.933,-0.393,-1543,50,46,47
-21.153,-88.918,-0.405,-1545,52,46,48
-21.052,-88.963,-0.478,-1629,59,49,48
-21.086,-88.951,-0.497,-1645,57,48,49
-21.104,-88.948,-0.5,-1670,56,47,48
-21.124,-88.949,-0.481,-1562,54,45,46
-21.069,-88.956,-0.496,-1725,58,48,47
-21.069,-88.957,-0.485,-1560,58,48,47
-21.122,-88.942,-0.458,-1545,54,45,46
-21.124,-88.949,-0.446,-1548,55,46,47
-21.103,-88.941,-0.44,-1617,56,47,48
-21.087,-88.954,-0.464,-1629,57,48,49
-21.069,-88.956,-0.464,-1653,59,49,48
-21.087,-88.956,-0.442,-1634,57,48,49
-21.069,-88.958,-0.442,-1570,59,50,51
-21.016,-88.974,-0.479,-1580,63,51,51
-21.035,-88.972,-0.48,-1609,60,50,49
-21.0,-88.984,-0.477,-1571,66,54,54
-21.055,-88.977,-0.467,-1524,60,50,49
-21.037,-88.981,-0.457,-1557,61,51,50
-21.051,-88.963,-0.444,-1576,60,50,49
-21.032,-88.96,-0.445,-1634,61,51,50
-21.015,-88.968,-0.467,-1629,63,51,51
-21.087,-88.954,-0.42,-1652,57,48,49
-21.124,-88.951,-0.422,-1506,56,47,48
-21.104,-88.945,-0.429,-1720,56,47,48
-21.123,-88.947,-0.411,-1558,54,48,50
-21.087,-88.954,-0.409,-1619,54,48,50
-21.068,-88.953,-0.41,-1558,55,49,51
-21.105,-88.949,-0.405,-1657,53,47,49
-21.104,-88.947,-0.394,-1560,51,47,48
-21.125,-88.954,-0.388,-1571,48,46,47
-21.122,-88.943,-0.376,-1539,48,46,47
-21.084,-88.945,-0.387,-1657,52,48,49
-21.07,-88.962,-0.389,-1547,54,50,51
-21.085,-88.948,-0.376,-1657,52,48,49
-21.051,-88.96,-0.42,-1601,58,49,50
-21.036,-88.977,-0.412,-1545,56,50,52
-21.018,-88.979,-0.421,-1539,60,51,52
-21.019,-88.985,-0.409,-1527,56,50,52
-21.001,-88.986,-0.409,-1573,53,47,49
-21.052,-88.966,-0.41,-1611,56,50,52
-21.052,-88.966,-0.387,-1570,46,44,45
-21.05,-88.958,-0.375,-1586,46,44,45
-21.034,-88.967,-0.389,-1591,53,47,49
-21.014,-88.965,-0.385,-1655,42,40,41
-21.155,-88.924,-0.347,-1465,42,42,44
-21.14,-88.941,-0.354,-1730,38,38,40
-21.243,-88.901,-0.375,-1385,58,53,50
-21.208,-88.911,-0.366,-1419,57,52,49
-21.191,-88.917,-0.366,-1421,54,50,49
-21.208,-88.908,-0.355,-1448,57,53,52
-21.191,-88.916,-0.354,-1434,52,48,47
-21.226,-88.906,-0.371,-1421,58,53,50
-21.242,-88.895,-0.351,-1403,56,52,51
-21.225,-88.903,-0.348,-1412,57,53,52
-21.21,-88.914,-0.333,-1444,56,52,51
-21.191,-88.914,-0.331,-1368,45,43,44
-21.191,-88.914,-0.319,-1386,45,43,44
-21.243,-88.901,-0.329,-1329,50,49,47
-21.224,-88.9,-0.337,-1381,57,53,52
-21.242,-88.896,-0.318,-1345,46,45,43
-21.225,-88.904,-0.315,-1344,45,44,42
-21.208,-88.905,-0.321,-1396,47,46,44
-21.174,-88.928,-0.371,-1434,52,50,51
-21.173,-88.923,-0.348,-1462,49,47,48
-21.172,-88.919,-0.337,-1439,43,43,43
-21.157,-88.931,-0.336,-1447,39,39,41
-21.172,-88.918,-0.313,-1480,36,36,38
-21.143,-88.953,-0.284,-1657,27,27,29
-21.14,-88.939,-0.261,-1735,28,26,29
-21.242,-88.896,-0.296,-1362,38,38,38
-21.208,-88.91,-0.299,-1403,34,32,33
-21.191,-88.917,-0.297,-1396,33,31,32
-21.242,-88.895,-0.284,-1339,32,32,32
-21.225,-88.902,-0.293,-1411,37,35,36
-21.225,-88.903,-0.281,-1360,31,29,30
-21.208,-88.91,-0.276,-1373,29,27,28
-21.191,-88.914,-0.274,-1442,29,27,28
-21.208,-88.909,-0.265,-1375,29,27,28
-21.191,-88.916,-0.262,-1394,29,27,28
-21.242,-88.893,-0.261,-1334,29,29,29
-21.224,-88.899,-0.259,-1345,30,28,29
-21.154,-88.921,-0.312,-1434,28,29,31
-21.173,-88.922,-0.303,-1422,31,31,33
-21.156,-88.926,-0.3,-1429,26,26,28
-21.171,-88.914,-0.28,-1457,27,27,29
-21.172,-88.919,-0.257,-1424,28,26,29
-21.155,-88.922,-0.278,-1432,26,24,27
-21.156,-88.928,-0.267,-1406,26,24,27
-21.053,-88.968,-0.353,-1576,33,33,35
-21.069,-88.958,-0.367,-1699,46,44,45
-21.121,-88.939,-0.352,-1516,41,41,43
-21.104,-88.946,-0.358,-1648,40,40,42
-21.067,-88.951,-0.356,-1645,38,38,40
-21.087,-88.955,-0.354,-1625,40,40,42
-21.122,-88.943,-0.329,-1517,29,30,32
-21.103,-88.94,-0.334,-1643,34,34,36
-21.123,-88.945,-0.317,-1568,28,29,31
-21.085,-88.946,-0.331,-1581,27,28,30
-21.069,-88.957,-0.335,-1521,32,32,34
-21.069,-88.958,-0.315,-1511,27,28,30
-21.033,-88.962,-0.355,-1686,31,31,33
-21.037,-88.979,-0.367,-1627,37,35,36
-21.017,-88.976,-0.375,-1555,42,40,41
-21.003,-88.993,-0.352,-1620,29,29,31
-21.017,-88.977,-0.351,-1576,30,30,32
-21.036,-88.975,-0.32,-1745,27,28,30
-21.016,-88.972,-0.329,-1557,27,28,30
-21.052,-88.963,-0.33,-1637,27,28,30
-21.05,-88.956,-0.319,-1639,27,28,30
-21.031,-88.956,-0.332,-1629,27,28,30
-21.015,-88.968,-0.317,-1617,26,27,29
-21.085,-88.948,-0.311,-1545,27,28,30
-21.102,-88.938,-0.311,-1609,27,28,30
-21.103,-88.941,-0.299,-1650,28,28,30
-21.124,-88.949,-0.295,-1480,29,29,31
-21.125,-88.953,-0.283,-1540,28,28,30
-21.084,-88.943,-0.299,-1591,28,28,30
-21.068,-88.955,-0.293,-1584,27,27,29
-21.069,-88.956,-0.282,-1527,27,27,29
-21.103,-88.941,-0.275,-1580,27,25,28
-21.106,-88.954,-0.264,-1524,26,24,27
-21.124,-88.95,-0.259,-1493,28,26,29
-21.085,-88.945,-0.278,-1609,27,25,28
-21.032,-88.96,-0.299,-1729,27,27,29
-21.05,-88.958,-0.297,-1607,27,27,29
-21.054,-88.973,-0.262,-1643,27,25,28
-21.035,-88.973,-0.264,-1619,27,25,28
-21.018,-88.98,-0.259,-1573,27,25,28
-21.002,-88.991,-0.26,-1532,28,26,29
-21.05,-88.958,-0.274,-1637,27,25,28
-21.083,-88.937,-0.267,-1743,27,25,28
-21.435,-88.837,-0.118,-1393,29,27,28
-21.278,-88.887,-0.245,-1452,27,27,27
-21.26,-88.894,-0.246,-1373,27,27,27
-21.295,-88.878,-0.243,-1414,26,28,27
-21.277,-88.882,-0.222,-1470,27,25,26
-21.26,-88.893,-0.223,-1370,29,29,29
-21.278,-88.889,-0.211,-1391,27,25,26
-21.26,-88.894,-0.211,-1367,28,26,27
-21.26,-88.891,-0.189,-1388,31,27,28
-21.277,-88.883,-0.188,-1386,28,26,27
-21.277,-88.885,-0.165,-1312,29,27,28
-21.26,-88.891,-0.166,-1337,30,28,29
-21.295,-88.878,-0.129,-1388,29,27,28
-21.277,-88.885,-0.154,-1347,29,27,28
-21.258,-88.886,-0.155,-1353,30,28,29
-21.278,-88.886,-0.13,-1324,29,27,28
-21.259,-88.889,-0.132,-1332,29,27,28
-21.399,-88.843,-0.227,-1399,32,28,29
-21.454,-88.832,-0.243,-1398,31,27,28
-21.487,-88.818,-0.248,-1385,28,26,29
-21.471,-88.828,-0.242,-1401,28,26,29
-21.487,-88.819,-0.225,-1426,27,25,28
-21.471,-88.828,-0.23,-1367,27,25,28
-21.453,-88.83,-0.221,-1396,31,27,28
-21.471,-88.826,-0.207,-1371,32,27,31
-21.487,-88.818,-0.202,-1430,32,27,31
-21.486,-88.816,-0.191,-1496,30,28,29
-21.451,-88.826,-0.209,-1383,31,27,28
-21.435,-88.836,-0.244,-1386,31,27,28
-21.419,-88.846,-0.24,-1378,31,27,28
-21.419,-88.845,-0.229,-1393,31,27,28
-21.4,-88.846,-0.238,-1399,31,27,28
-21.384,-88.856,-0.242,-1368,29,27,28
-21.383,-88.853,-0.23,-1314,29,27,28
-21.434,-88.831,-0.222,-1391,31,27,28
-21.4,-88.848,-0.204,-1349,28,27,25
-21.383,-88.853,-0.207,-1275,26,26,26
-21.4,-88.847,-0.192,-1360,28,26,27
-21.435,-88.836,-0.211,-1385,31,27,28
-21.417,-88.84,-0.205,-1376,31,27,28
-21.435,-88.835,-0.188,-1378,29,27,28
-21.418,-88.843,-0.193,-1319,29,27,28
-21.452,-88.827,-0.186,-1381,29,27,28
-21.47,-88.823,-0.184,-1421,30,28,29
-21.472,-88.831,-0.173,-1385,30,28,29
-21.488,-88.823,-0.169,-1429,30,28,29
-21.452,-88.829,-0.175,-1375,29,27,28
-21.487,-88.819,-0.145,-1422,30,28,29
-21.47,-88.825,-0.15,-1373,30,28,29
-21.487,-88.822,-0.134,-1457,30,29,27
-21.469,-88.819,-0.138,-1376,30,29,27
-21.451,-88.83,-0.152,-1347,29,27,28
-21.451,-88.83,-0.128,-1401,29,27,28
-21.435,-88.835,-0.164,-1347,29,27,28
-21.382,-88.85,-0.184,-1376,27,27,27
-21.383,-88.852,-0.172,-1358,27,27,27
-21.399,-88.845,-0.169,-1353,28,26,27
-21.417,-88.837,-0.17,-1378,29,27,28
-21.399,-88.844,-0.146,-1337,28,26,27
-21.382,-88.85,-0.149,-1371,28,28,28
-21.4,-88.849,-0.134,-1368,28,26,29
-21.382,-88.851,-0.137,-1416,29,27,28
-21.435,-88.834,-0.153,-1370,29,27,28
-21.418,-88.842,-0.146,-1383,29,27,28
-21.435,-88.834,-0.13,-1416,29,27,28
-21.417,-88.84,-0.135,-1362,29,27,28
-21.308,-88.855,-0.244,-1494,27,27,27
-21.344,-88.843,-0.238,-1429,32,32,32
-21.364,-88.856,-0.242,-1367,30,30,30
-21.363,-88.854,-0.23,-1371,28,28,28
-21.325,-88.85,-0.24,-1386,31,31,31
-21.324,-88.847,-0.228,-1360,29,29,29
-21.343,-88.84,-0.226,-1473,30,30,30
-21.364,-88.857,-0.207,-1340,27,27,27
-21.325,-88.849,-0.205,-1376,28,26,27
-21.324,-88.847,-0.194,-1375,28,26,27
-21.343,-88.841,-0.203,-1442,27,27,27
-21.342,-88.837,-0.191,-1411,27,27,27
-21.308,-88.856,-0.222,-1493,28,26,27
-21.293,-88.871,-0.22,-1411,26,24,25
-21.308,-88.853,-0.211,-1480,28,26,27
-21.293,-88.87,-0.209,-1368,27,25,26
-21.307,-88.85,-0.189,-1444,28,26,27
-21.343,-88.838,-0.168,-1412,27,27,27
-21.364,-88.859,-0.184,-1437,27,27,27
-21.363,-88.851,-0.172,-1473,27,27,27
-21.325,-88.848,-0.171,-1383,28,26,27
-21.343,-88.839,-0.157,-1501,27,27,27
-21.364,-88.856,-0.149,-1473,27,27,27
-21.364,-88.855,-0.137,-1404,28,26,27
-21.324,-88.846,-0.135,-1594,28,26,27
-21.321,-88.834,-0.147,-1455,28,26,27
-21.342,-88.834,-0.133,-1471,28,26,27
-21.294,-88.873,-0.186,-1391,27,25,26
-21.293,-88.873,-0.174,-1357,27,25,26
-21.309,-88.859,-0.168,-1491,28,26,27
-21.306,-88.846,-0.147,-1440,28,26,27
-21.293,-88.872,-0.152,-1401,28,26,27
-21.306,-88.847,-0.136,-1558,28,26,27
-21.277,-88.882,-0.119,-1349,28,26,27
-21.277,-88.882,-0.096,-1370,31,29,32
-21.259,-88.888,-0.109,-1322,28,26,29
-21.26,-88.892,-0.098,-1316,26,24,27
-21.275,-88.877,-0.073,-1630,33,28,32
-21.26,-88.892,-0.075,-1383,32,27,31
-21.256,-88.877,-0.064,-1514,32,27,31
-21.418,-88.841,-0.112,-1391,26,24,25
-21.451,-88.832,-0.117,-1411,29,27,28
-21.486,-88.815,-0.111,-1381,30,29,27
-21.47,-88.822,-0.115,-1360,30,29,27
-21.487,-88.82,-0.1,-1398,30,29,27
-21.453,-88.83,-0.094,-1406,35,33,34
-21.471,-88.825,-0.093,-1360,34,33,31
-21.47,-88.824,-0.082,-1370,34,30,29
-21.486,-88.817,-0.077,-1409,36,32,29
-21.452,-88.826,-0.083,-1427,29,25,26
-21.434,-88.83,-0.095,-1380,26,24,25
-21.399,-88.844,-0.111,-1412,25,23,26
-21.382,-88.852,-0.113,-1380,30,28,29
-21.4,-88.846,-0.099,-1394,25,23,26
-21.383,-88.852,-0.102,-1386,33,28,32
-21.417,-88.84,-0.1,-1398,26,24,25
-21.399,-88.846,-0.076,-1439,30,25,31
-21.435,-88.838,-0.072,-1422,38,34,35
-21.418,-88.843,-0.076,-1421,26,21,25
-21.38,-88.841,-0.079,-1470,32,27,31
-21.453,-88.828,-0.061,-1437,34,30,31
-21.489,-88.826,-0.055,-1511,36,32,29
-21.471,-88.826,-0.059,-1453,30,26,23
-21.432,-88.824,-0.061,-1545,32,28,29
-21.306,-88.846,-0.114,-1494,28,26,27
-21.342,-88.837,-0.11,-1475,26,21,25
-21.363,-88.853,-0.114,-1396,29,27,28
-21.362,-88.851,-0.102,-1465,29,24,28
-21.325,-88.848,-0.112,-1450,35,30,34
-21.324,-88.846,-0.101,-1493,35,30,34
-21.342,-88.837,-0.098,-1445,27,22,26
-21.294,-88.873,-0.118,-1399,29,27,28
-21.293,-88.871,-0.095,-1540,28,26,29
-21.305,-88.844,-0.092,-1465,28,23,27
-21.302,-88.83,-0.082,-1699,35,29,33
-21.138,-88.777,-0.059,-1170,30,29,27
-21.155,-88.923,-0.243,-1412,26,24,25
-21.125,-88.954,-0.225,-1524,26,24,25
-21.242,-88.897,-0.238,-1357,27,27,27
-21.209,-88.909,-0.242,-1358,28,26,27
-21.19,-88.911,-0.24,-1427,30,26,27
-21.208,-88.906,-0.22,-1370,31,27,28
-21.189,-88.909,-0.228,-1399,30,26,27
-21.225,-88.902,-0.247,-1353,28,26,27
-21.243,-88.897,-0.227,-1358,30,28,29
-21.224,-88.899,-0.225,-1347,29,27,28
-21.191,-88.914,-0.205,-1339,31,25,27
-21.19,-88.909,-0.193,-1357,30,26,27
-21.242,-88.895,-0.203,-1360,31,27,28
-21.242,-88.896,-0.193,-1324,31,27,28
-21.225,-88.902,-0.201,-1355,31,27,28
-21.224,-88.898,-0.19,-1312,31,27,28
-21.208,-88.906,-0.209,-1355,31,27,28
-21.154,-88.919,-0.22,-1393,29,24,28
-21.171,-88.915,-0.245,-1417,28,26,27
-21.172,-88.918,-0.222,-1394,29,24,28
-21.139,-88.934,-0.226,-1614,26,24,25
-21.171,-88.914,-0.21,-1381,29,24,28
-21.154,-88.921,-0.208,-1406,29,24,28
-21.138,-88.932,-0.191,-1483,28,26,29
-21.136,-88.92,-0.203,-1511,30,25,29
-21.207,-88.905,-0.186,-1342,30,26,27
-21.208,-88.911,-0.164,-1367,29,27,28
-21.189,-88.908,-0.171,-1352,30,26,27
-21.241,-88.891,-0.17,-1357,32,28,29
-21.224,-88.898,-0.167,-1339,30,28,29
-21.19,-88.91,-0.148,-1368,30,26,27
-21.208,-88.907,-0.13,-1350,30,28,29
-21.189,-88.909,-0.136,-1353,29,27,28
-21.242,-88.895,-0.146,-1380,30,28,29
-21.225,-88.901,-0.156,-1371,30,28,29
-21.241,-88.892,-0.135,-1317,30,28,29
-21.223,-88.896,-0.133,-1358,30,28,29
-21.207,-88.906,-0.152,-1380,29,27,28
-21.155,-88.921,-0.174,-1419,28,26,29
-21.172,-88.92,-0.187,-1373,28,26,29
-21.172,-88.919,-0.164,-1389,28,26,29
-21.155,-88.922,-0.185,-1360,28,26,29
-21.139,-88.933,-0.168,-1506,29,27,30
-21.138,-88.929,-0.157,-1496,29,27,30
-21.171,-88.917,-0.152,-1362,29,27,30
-21.171,-88.916,-0.129,-1416,28,28,28
-21.155,-88.921,-0.15,-1378,29,27,30
-21.138,-88.928,-0.133,-1445,29,27,28
-21.155,-88.921,-0.138,-1419,28,28,28
-21.121,-88.936,-0.201,-1463,30,25,29
-21.087,-88.955,-0.244,-1519,27,25,26
-21.122,-88.943,-0.248,-1540,27,25,26
-21.104,-88.948,-0.24,-1540,26,24,25
-21.105,-88.952,-0.228,-1522,26,24,25
-21.071,-88.966,-0.239,-1434,27,25,26
-21.069,-88.956,-0.228,-1617,27,25,26
-21.102,-88.938,-0.205,-1522,30,25,29
-21.102,-88.938,-0.193,-1457,28,26,29
-21.085,-88.949,-0.211,-1562,30,25,29
-21.067,-88.948,-0.207,-1488,28,26,29
-21.085,-88.945,-0.188,-1486,28,26,29
-21.015,-88.967,-0.225,-1507,28,26,27
-21.037,-88.981,-0.242,-1616,27,25,26
-21.017,-88.978,-0.247,-1553,28,26,27
-21.053,-88.967,-0.24,-1525,27,25,26
-21.051,-88.96,-0.229,-1727,27,25,26
-21.033,-88.965,-0.23,-1566,27,25,26
-21.017,-88.976,-0.202,-1435,29,27,30
-21.016,-88.972,-0.19,-1460,29,27,30
-21.05,-88.955,-0.205,-1511,28,26,29
-21.034,-88.966,-0.207,-1494,29,27,30
-21.12,-88.933,-0.19,-1463,28,26,29
-21.068,-88.953,-0.186,-1514,29,27,30
-21.104,-88.946,-0.169,-1457,29,27,30
-21.086,-88.95,-0.166,-1465,29,27,30
-21.068,-88.954,-0.164,-1435,29,27,30
-21.104,-88.945,-0.146,-1471,29,27,30
-21.086,-88.949,-0.155,-1448,29,27,30
-21.069,-88.956,-0.153,-1465,30,28,31
-21.069,-88.958,-0.132,-1519,30,28,29
-21.085,-88.945,-0.132,-1453,30,28,29
-21.014,-88.965,-0.167,-1494,30,28,31
-21.052,-88.965,-0.183,-1458,29,27,30
-21.034,-88.966,-0.185,-1486,29,27,30
-21.033,-88.964,-0.173,-1458,29,27,30
-21.049,-88.953,-0.172,-1452,29,27,30
-21.017,-88.977,-0.133,-1442,30,28,29
-21.051,-88.962,-0.149,-1453,30,28,31
-21.033,-88.963,-0.15,-1468,30,28,31
-21.05,-88.959,-0.137,-1457,30,28,29
-21.032,-88.96,-0.139,-1494,30,28,29
-21.014,-88.965,-0.156,-1450,30,28,31
-21.121,-88.936,-0.167,-1434,29,27,30
-21.12,-88.934,-0.155,-1447,29,27,30
-21.121,-88.937,-0.132,-1452,29,27,28
-21.102,-88.936,-0.134,-1496,30,28,29
-21.137,-88.928,-0.109,-1448,31,29,30
-21.206,-88.902,-0.119,-1385,30,28,29
-21.191,-88.914,-0.114,-1468,31,29,32
-21.207,-88.906,-0.096,-1430,24,22,25
-21.19,-88.909,-0.102,-1391,31,29,32
-21.242,-88.895,-0.113,-1365,28,26,29
-21.224,-88.9,-0.111,-1432,29,27,30
-21.224,-88.896,-0.098,-1399,35,33,36
-21.241,-88.89,-0.101,-1345,28,26,29
-21.19,-88.913,-0.079,-1422,30,25,29
-21.241,-88.892,-0.078,-1357,32,27,31
-21.224,-88.899,-0.076,-1408,34,29,33
-21.223,-88.895,-0.065,-1445,31,26,30
-21.207,-88.904,-0.074,-1396,32,27,31
-21.138,-88.93,-0.098,-1480,30,28,29
-21.172,-88.918,-0.117,-1411,28,28,28
-21.157,-88.932,-0.115,-1447,28,28,28
-21.171,-88.915,-0.094,-1416,27,25,26
-21.171,-88.917,-0.082,-1393,28,26,27
-21.154,-88.92,-0.08,-1391,29,28,26
-21.155,-88.923,-0.092,-1408,29,27,28
-21.137,-88.925,-0.075,-1476,31,30,28
-21.155,-88.922,-0.058,-1535,33,29,28
-21.137,-88.925,-0.062,-1525,33,29,28
-21.121,-88.937,-0.12,-1463,30,28,29
-21.085,-88.945,-0.11,-1471,28,26,27
-21.104,-88.946,-0.111,-1470,28,26,27
-21.122,-88.94,-0.097,-1439,30,28,29
-21.068,-88.953,-0.11,-1434,33,29,30
-21.085,-88.946,-0.1,-1501,33,29,30
-21.068,-88.952,-0.099,-1452,33,29,30
-21.104,-88.946,-0.063,-1537,32,28,27
-21.085,-88.945,-0.076,-1475,34,30,29
-21.068,-88.953,-0.078,-1516,33,29,28
-21.086,-88.951,-0.065,-1707,35,29,29
-21.014,-88.968,-0.098,-1435,36,32,33
-21.016,-88.97,-0.109,-1435,36,32,33
-21.0,-88.981,-0.099,-1485,32,26,28
-21.05,-88.961,-0.115,-1435,30,28,29
-21.033,-88.963,-0.116,-1442,30,28,29
-21.049,-88.956,-0.092,-1491,36,32,33
-21.049,-88.955,-0.08,-1471,38,32,32
-21.032,-88.96,-0.093,-1460,32,28,29
-21.032,-88.96,-0.081,-1548,34,28,28
-21.101,-88.933,-0.099,-1458,30,28,29
-21.12,-88.932,-0.074,-1496,33,29,28
-21.102,-88.937,-0.075,-1455,33,29,28
-21.119,-88.93,-0.062,-1552,33,29,28
-21.246,-88.753,-0.062,-1380,30,25,29
-21.027,-88.778,-0.045,-1330,44,35,36
-21.08,-88.762,-0.039,-1332,37,31,31
-21.117,-88.763,-0.046,-1398,33,29,28
-21.098,-88.761,-0.04,-1376,35,31,30
-21.096,-88.753,-0.029,-1383,42,36,36
-21.079,-88.76,-0.027,-1373,43,37,37
-21.062,-88.769,-0.04,-1360,38,32,32
-21.028,-88.783,-0.056,-1363,38,32,32
-21.01,-88.79,-0.058,-1373,43,34,35
-21.009,-88.785,-0.047,-1350,39,30,31
-21.044,-88.772,-0.043,-1394,43,34,35
-21.04,-88.757,-0.02,-1358,50,41,42
-21.062,-88.767,-0.029,-1383,44,38,38
-21.04,-88.755,-0.008,-1367,59,45,45
-21.022,-88.76,-0.024,-1414,52,43,44
-21.005,-88.767,-0.024,-1406,52,42,43
-21.003,-88.758,-0.002,-1334,98,68,66
-21.497,-88.624,-0.039,-1394,33,29,28
-21.428,-88.651,-0.036,-1349,27,23,20
-21.464,-88.643,-0.046,-1368,31,27,24
-21.48,-88.633,-0.044,-1383,32,28,27
-21.445,-88.645,-0.044,-1393,34,30,27
-21.46,-88.627,-0.022,-1404,36,31,28
-21.443,-88.637,-0.021,-1388,36,31,28
-21.395,-88.669,-0.037,-1409,53,49,50
-21.411,-88.66,-0.038,-1381,38,34,35
-21.393,-88.661,-0.027,-1371,76,70,72
-21.427,-88.644,-0.025,-1347,38,33,30
-21.41,-88.655,-0.027,-1326,71,65,67
-21.423,-88.628,-0.002,-1368,48,38,36
-21.404,-88.633,-0.004,-1389,73,65,63
-21.389,-88.644,-0.004,-1365,94,85,86
-21.306,-88.687,-0.063,-1403,30,24,28
-21.369,-88.64,-0.064,-1412,35,30,34
-21.35,-88.641,-0.064,-1399,36,31,37
-21.251,-88.696,-0.061,-1489,32,26,30
-21.333,-88.647,-0.055,-1385,42,33,38
-21.316,-88.659,-0.044,-1357,44,33,39
-21.367,-88.632,-0.041,-1427,45,40,44
-21.349,-88.637,-0.041,-1385,43,36,43
-21.314,-88.651,-0.056,-1352,43,34,39
-21.334,-88.65,-0.044,-1401,49,40,45
-21.367,-88.629,-0.029,-1378,93,87,91
-21.347,-88.626,-0.018,-1394,86,79,86
-21.329,-88.629,-0.021,-1375,73,64,69
-21.329,-88.63,-0.009,-1370,91,80,88
-21.266,-88.677,-0.061,-1385,29,23,27
-21.282,-88.668,-0.055,-1371,39,30,35
-21.3,-88.66,-0.04,-1403,39,30,35
-21.281,-88.666,-0.043,-1375,51,42,47
-21.265,-88.673,-0.04,-1365,40,31,36
-21.312,-88.642,-0.021,-1373,86,75,81
-21.296,-88.646,-0.028,-1363,92,81,87
-21.295,-88.641,-0.005,-1324,80,69,75
-21.312,-88.638,-0.01,-1334,83,72,80
-21.277,-88.651,-0.02,-1368,58,47,53
-21.26,-88.656,-0.019,-1345,93,82,88
-21.277,-88.649,-0.008,-1332,96,85,89
-21.259,-88.651,-0.008,-1378,86,77,80
-21.44,-88.624,-0.01,-1370,42,37,34
-21.495,-88.615,-0.018,-1375,38,32,32
-21.476,-88.618,-0.022,-1404,36,30,30
-21.492,-88.604,-0.007,-1378,42,36,36
-21.365,-88.622,-0.006,-1371,99,88,92
-21.346,-88.624,-0.007,-1368,94,83,91
-21.155,-88.687,-0.006,-1399,81,75,77
-21.172,-88.682,-0.008,-1367,87,81,83
-21.195,-88.698,-0.056,-1388,44,38,42
-21.211,-88.688,-0.041,-1350,35,29,33
-21.195,-88.697,-0.045,-1378,32,26,30
-21.142,-88.71,-0.055,-1383,38,33,37
-21.131,-88.747,-0.036,-1389,33,29,28
-21.161,-88.713,-0.062,-1414,32,27,31
-21.159,-88.705,-0.04,-1388,36,30,34
-21.176,-88.699,-0.043,-1404,51,45,49
-21.142,-88.709,-0.045,-1371,30,25,29
-21.13,-88.743,-0.025,-1419,39,35,34
-21.174,-88.688,-0.02,-1389,55,49,53
-21.155,-88.689,-0.018,-1411,81,75,77
-21.14,-88.699,-0.022,-1376,49,43,47
-21.138,-88.692,-0.01,-1414,47,41,41
-21.247,-88.677,-0.039,-1396,42,33,38
-21.23,-88.687,-0.039,-1399,40,34,38
-21.244,-88.665,-0.027,-1394,77,68,73
-21.228,-88.676,-0.028,-1362,62,53,58
-21.224,-88.663,-0.005,-1350,75,69,71
-21.208,-88.676,-0.019,-1358,74,65,70
-21.19,-88.678,-0.021,-1386,82,73,78
-21.19,-88.678,-0.01,-1386,73,67,69
-21.206,-88.668,-0.007,-1367,71,65,67
-21.241,-88.654,-0.004,-1386,83,77,79
-21.019,-88.748,-0.002,-1362,94,68,67
-21.124,-88.716,-0.001,-1388,60,49,47
-21.112,-88.744,-0.022,-1399,40,36,35
-21.092,-88.736,-0.004,-1373,51,42,43
-21.074,-88.741,-0.004,-1350,66,52,52
-21.056,-88.745,-0.005,-1365,53,43,44
-21.999,-88.451,-0.314,-1381,52,51,67
-21.986,-88.473,-0.331,-1409,39,33,47
-21.987,-88.478,-0.32,-1367,36,32,47
-21.971,-88.492,-0.316,-1362,39,34,41
-21.983,-88.462,-0.297,-1427,58,54,71
-21.968,-88.48,-0.293,-1363,42,36,46
-21.967,-88.477,-0.282,-1409,47,41,53
-21.997,-88.444,-0.292,-1368,79,78,92
-21.95,-88.483,-0.273,-1408,48,40,51
-21.949,-88.48,-0.262,-1408,48,40,51
-21.997,-88.442,-0.281,-1404,103,105,117
-21.981,-88.456,-0.273,-1352,99,97,110
-21.996,-88.44,-0.258,-1406,132,135,142
-21.979,-88.45,-0.261,-1376,99,97,110
-21.964,-88.464,-0.258,-1398,76,70,82
-21.935,-88.495,-0.263,-1376,36,31,38
-21.995,-88.436,-0.109,-1371,169,172,179
-21.932,-88.484,-0.24,-1396,45,39,49
-21.962,-88.456,-0.246,-1396,100,94,106
-21.997,-88.443,-0.245,-1380,138,141,146
-21.979,-88.445,-0.239,-1385,120,118,129
-21.997,-88.44,-0.222,-1388,142,143,148
-21.979,-88.444,-0.227,-1371,124,121,132
-21.946,-88.466,-0.238,-1380,81,73,86
-21.962,-88.453,-0.223,-1370,119,113,125
-21.944,-88.46,-0.227,-1352,97,89,102
-21.979,-88.449,-0.203,-1385,138,134,148
-21.997,-88.442,-0.2,-1357,153,147,159
-21.996,-88.44,-0.189,-1353,159,156,167
-21.978,-88.443,-0.192,-1381,138,134,148
-21.961,-88.453,-0.211,-1376,119,113,125
-21.943,-88.457,-0.203,-1370,116,114,125
-21.944,-88.459,-0.191,-1376,129,133,142
-21.96,-88.449,-0.188,-1363,127,131,140
-21.929,-88.473,-0.219,-1383,96,90,100
-21.914,-88.494,-0.225,-1383,44,39,46
-21.912,-88.476,-0.203,-1409,77,71,81
-21.911,-88.474,-0.192,-1370,94,86,97
-21.897,-88.497,-0.21,-1370,53,48,55
-21.927,-88.466,-0.208,-1373,96,90,100
-21.961,-88.452,-0.165,-1335,137,141,150
-21.979,-88.447,-0.169,-1357,158,156,167
-21.944,-88.459,-0.168,-1352,128,132,141
-21.978,-88.446,-0.145,-1355,175,174,180
-21.997,-88.44,-0.132,-1349,174,177,184
-21.978,-88.443,-0.134,-1353,178,177,183
-21.96,-88.448,-0.153,-1330,159,159,167
-21.943,-88.456,-0.146,-1381,156,150,160
-21.962,-88.455,-0.13,-1373,177,171,181
-21.943,-88.456,-0.134,-1339,177,169,180
-21.927,-88.464,-0.186,-1358,117,114,123
-21.91,-88.47,-0.171,-1368,108,100,111
-21.894,-88.483,-0.187,-1381,104,92,104
-21.875,-88.486,-0.167,-1375,76,58,70
-21.892,-88.474,-0.165,-1385,107,95,107
-21.927,-88.463,-0.164,-1358,124,121,130
-21.893,-88.477,-0.154,-1349,104,96,107
-21.891,-88.472,-0.132,-1375,136,135,143
-21.927,-88.462,-0.153,-1367,124,121,130
-21.907,-88.465,-0.149,-1363,121,118,127
-21.927,-88.461,-0.131,-1357,162,159,168
-21.907,-88.467,-0.128,-1363,137,134,143
-21.996,-88.437,-0.166,-1362,167,164,173
-21.996,-88.436,-0.155,-1375,172,171,179
-21.86,-88.498,-0.168,-1401,57,39,51
-21.841,-88.497,-0.146,-1367,75,70,77
-21.874,-88.48,-0.156,-1394,109,97,107
-21.858,-88.49,-0.147,-1383,94,89,96
-21.873,-88.477,-0.133,-1370,103,102,110
-21.857,-88.484,-0.137,-1370,104,103,109
-21.839,-88.489,-0.134,-1383,103,100,107
-21.995,-88.436,-0.098,-1342,169,172,179
-21.961,-88.451,-0.118,-1370,176,173,182
-21.978,-88.445,-0.11,-1368,176,179,184
-21.979,-88.448,-0.099,-1371,176,179,184
-21.943,-88.456,-0.111,-1360,173,170,179
-21.943,-88.456,-0.099,-1367,172,177,183
-21.96,-88.449,-0.094,-1371,171,180,185
-21.961,-88.453,-0.083,-1363,169,176,182
-21.944,-88.458,-0.064,-1352,169,174,180
-21.942,-88.452,-0.076,-1368,169,176,182
-21.908,-88.468,-0.117,-1368,156,153,162
-21.91,-88.471,-0.095,-1347,176,175,183
-21.892,-88.473,-0.111,-1344,138,135,144
-21.891,-88.472,-0.1,-1368,168,162,172
-21.927,-88.461,-0.108,-1353,175,175,183
-21.927,-88.461,-0.097,-1358,175,175,183
-21.891,-88.472,-0.078,-1367,179,178,186
-21.927,-88.462,-0.075,-1368,174,177,184
-21.926,-88.459,-0.064,-1355,169,174,180
-21.909,-88.469,-0.074,-1358,177,177,185
-21.993,-88.427,-0.075,-1345,168,171,178
-21.993,-88.426,-0.064,-1355,161,164,173
-21.975,-88.434,-0.075,-1358,169,174,180
-21.975,-88.432,-0.064,-1345,169,172,181
-21.959,-88.442,-0.059,-1378,168,173,179
-21.941,-88.445,-0.04,-1345,170,170,178
-21.958,-88.439,-0.025,-1337,151,158,166
-21.94,-88.445,-0.029,-1355,170,170,178
-21.959,-88.443,-0.001,-1362,145,149,158
-21.941,-88.447,-0.005,-1353,147,154,162
-21.908,-88.465,-0.062,-1358,172,175,182
-21.911,-88.471,-0.042,-1334,167,174,180
-21.891,-88.471,-0.056,-1365,176,179,186
-21.892,-88.476,-0.045,-1326,168,175,181
-21.926,-88.456,-0.042,-1352,168,173,179
-21.923,-88.448,-0.019,-1324,163,172,177
-21.907,-88.458,-0.02,-1368,169,176,182
-21.923,-88.446,-0.008,-1357,162,169,175
-21.89,-88.468,-0.024,-1367,174,179,185
-21.906,-88.454,-0.009,-1353,168,177,182
-21.888,-88.457,-0.002,-1339,172,179,185
-21.957,-88.435,-0.037,-1355,170,170,180
-21.993,-88.426,-0.041,-1329,159,161,173
-21.975,-88.433,-0.04,-1345,165,165,177
-21.994,-88.43,-0.019,-1360,175,175,187
-21.976,-88.436,-0.029,-1337,165,165,177
-21.994,-88.429,-0.007,-1358,188,188,200
-21.976,-88.435,-0.005,-1340,156,158,171
-21.804,-88.499,-0.111,-1380,96,86,95
-21.838,-88.486,-0.111,-1368,94,91,98
-21.874,-88.48,-0.11,-1363,155,145,156
-21.857,-88.484,-0.115,-1352,98,95,102
-21.873,-88.477,-0.099,-1344,155,145,156
-21.822,-88.498,-0.114,-1365,94,87,95
-21.839,-88.489,-0.099,-1319,123,111,123
-21.856,-88.483,-0.094,-1339,153,141,153
